1.0 0 0
0 0 0
0 0 0.8660254037844387
0 0 1.0
0.30901699437494745 0 0.9510565162951535
0.5000000000000001 0 0.8660254037844386
0.6234898018587336 0 0.7818314824680298
0.7071067811865476 0 0.7071067811865476
0.766044443118978 0 0.6427876096865393
0.8090169943749475 0 0.5877852522924731
0.8412535328311812 0 0.5406408174555976
0 0 0
1.0 0 0
0.4999999999999998 0 0.8660254037844387
0 0 1.0
0 0 0.9510565162951535
0 0 0.8660254037844386
0 0 0.7818314824680298
0 0 0.7071067811865476
0 0 0.6427876096865393
0 0 0.5877852522924731
0 0 0.5406408174555976
0 0.8660254037844387 0
0.4999999999999998 0 0
0.24999999999999978 0 0.8660254037844387
0 0 1.0
0 0.2676165673298175 0.9510565162951535
0 0.43301270189221946 0.8660254037844386
0 0.5399580074101894 0.7818314824680298
0 0.6123724356957946 0.7071067811865476
0 0.6634139481689384 0.6427876096865393
0 0.7006292692220368 0.5877852522924731
0 0.7285469304552092 0.5406408174555976
0 1.0 0
0 0 0
0 0 0.8660254037844387
0 0 1.0
0 0.30901699437494745 0.9510565162951535
0 0.5000000000000001 0.8660254037844386
0 0.6234898018587336 0.7818314824680298
0 0.7071067811865476 0.7071067811865476
0 0.766044443118978 0.6427876096865393
0 0.8090169943749475 0.5877852522924731
0 0.8412535328311812 0.5406408174555976
0.30901699437494745 0.9510565162951535 0
0 0 0
0 0 0.8660254037844387
0 0 1.0
0.0954915028125263 0.29389262614623657 0.9510565162951535
0.15450849718747375 0.4755282581475769 0.8660254037844386
0.1926689445938174 0.5929740389013227 0.7818314824680298
0.21850801222441057 0.6724985119639574 0.7071067811865476
0.23672075137025697 0.7285515593999962 0.6427876096865393
0.25000000000000006 0.7694208842938134 0.5877852522924731
0.2599616382227978 0.8000796542554137 0.5406408174555976
0.5000000000000001 0.8660254037844386 0
0 0 0
0 0 0.8660254037844387
0 0 1.0
0.15450849718747375 0.2676165673298175 0.9510565162951535
0.2500000000000001 0.4330127018922194 0.8660254037844386
0.31174490092936685 0.5399580074101894 0.7818314824680298
0.35355339059327384 0.6123724356957946 0.7071067811865476
0.3830222215594891 0.6634139481689384 0.6427876096865393
0.40450849718747384 0.7006292692220367 0.5877852522924731
0.4206267664155907 0.7285469304552091 0.5406408174555976
0.6234898018587336 0.7818314824680298 0
0 0 0
0 0 0.8660254037844387
0 0 1.0
0.1926689445938174 0.24159921481997998 0.9510565162951535
0.31174490092936685 0.390915741234015 0.8660254037844386
0.3887395330218429 0.48746395609091187 0.7818314824680298
0.44087386689496744 0.5528383429982753 0.7071067811865476
0.4776208980552355 0.5989176626001069 0.6427876096865393
0.5044138455231841 0.6325149560539949 0.5877852522924731
0.5245129984978728 0.6577184967048698 0.5406408174555976
0.7071067811865476 0.7071067811865476 0
0 0 0
0 0 0.8660254037844387
0 0 1.0
0.21850801222441057 0.21850801222441057 0.9510565162951535
0.35355339059327384 0.35355339059327384 0.8660254037844386
0.44087386689496744 0.44087386689496744 0.7818314824680298
0.5000000000000001 0.5000000000000001 0.7071067811865476
0.5416752204197018 0.5416752204197018 0.6427876096865393
0.5720614028176844 0.5720614028176844 0.5877852522924731
0.5948560777620682 0.5948560777620682 0.5406408174555976
0.766044443118978 0.6427876096865393 0
0 0 0
0 0 0.8660254037844387
0 0 1.0
0.23672075137025697 0.1986322951667912 0.9510565162951535
0.3830222215594891 0.3213938048432697 0.8660254037844386
0.4776208980552355 0.4007715194007093 0.7818314824680298
0.5416752204197018 0.45451947767204365 0.7071067811865476
0.5868240888334652 0.49240387650610395 0.6427876096865393
0.619742972929746 0.5200261000100609 0.5877852522924731
0.644437594079535 0.5407473475089115 0.5406408174555976
0.8090169943749475 0.5877852522924731 0
0 0 0
0 0 0.8660254037844387
0 0 1.0
0.25000000000000006 0.18163563200134025 0.9510565162951535
0.40450849718747384 0.2938926261462366 0.8660254037844386
0.5044138455231841 0.3664781104873198 0.7818314824680298
0.5720614028176844 0.41562693777745346 0.7071067811865476
0.619742972929746 0.4502696262659356 0.6427876096865393
0.6545084971874737 0.4755282581475768 0.5877852522924731
0.6805884046383884 0.4944764200371102 0.5406408174555976
0.8412535328311812 0.5406408174555976 0
0 0 0
0 0 0.8660254037844387
0 0 1.0
0.2599616382227978 0.16706720044654338 0.9510565162951535
0.4206267664155907 0.27032040872779883 0.8660254037844386
0.5245129984978728 0.3370840361521343 0.7818314824680298
0.5948560777620682 0.3822907882090914 0.7071067811865476
0.644437594079535 0.41415489393516225 0.6427876096865393
0.6805884046383884 0.43738760917434216 0.5877852522924731
0.7077075065009433 0.45481599767725917 0.5406408174555976
